ply
    format ascii 1.0
    element vertex 42930
    property float x
    property float y
    property float z
    property uchar red
    property uchar green
    property uchar blue
    end_header
 -3.211999 12.452049 52.939739 38 38 38
 -3.279755 12.452049 52.939739 38 38 38
 -3.347511 12.452049 52.939739 38 38 38
 -3.415266 12.452049 52.939739 38 38 38
 -3.483022 12.452049 52.939739 38 38 38
 -3.548340 12.443502 52.903404 38 38 38
 -3.616050 12.443502 52.903404 39 39 39
 -3.683758 12.443502 52.903404 41 41 41
 -3.751468 12.443502 52.903404 41 41 41
 -3.816557 12.434968 52.867119 41 41 41
 -3.881558 12.426445 52.830883 41 41 41
 -3.949174 12.426445 52.830883 41 41 41
 -4.016790 12.426445 52.830883 42 42 42
 -4.084406 12.426445 52.830883 42 42 42
 -4.152023 12.426445 52.830883 42 42 42
 -4.216749 12.417933 52.794697 42 42 42
 -4.284319 12.417933 52.794697 42 42 42
 -4.351889 12.417933 52.794697 42 42 42
 -4.419459 12.417933 52.794697 42 42 42
 -4.487029 12.417933 52.794697 42 42 42
 4.438969 12.316781 52.081257 119 119 119
 4.369359 12.308464 52.046089 118 118 118
 4.302748 12.308464 52.046089 117 117 117
 4.236136 12.308464 52.046089 117 117 117
 4.169524 12.308464 52.046089 115 115 115
 4.102912 12.308464 52.046089 113 113 113
 4.036300 12.308464 52.046089 113 113 113
 3.969688 12.308464 52.046089 114 114 114
 3.900443 12.300159 52.010971 115 115 115
 3.833876 12.300159 52.010971 115 115 115
 3.764769 12.291864 51.975899 116 116 116
 3.698247 12.291864 51.975899 117 117 117
 3.629278 12.283582 51.940876 116 116 116
 3.562800 12.283582 51.940876 115 115 115
 3.496323 12.283582 51.940876 116 116 116
 3.429846 12.283582 51.940876 115 115 115
 3.363369 12.283582 51.940876 115 115 115
 3.294672 12.275311 51.905899 114 114 114
 3.230414 12.283582 51.940876 113 113 113
 3.161807 12.275311 51.905899 112 112 112
 3.095374 12.275311 51.905899 110 110 110
 3.026903 12.267050 51.870968 105 105 105
 2.956537 12.250562 51.801250 95 95 95
 2.882489 12.217718 51.662373 89 89 89
 2.814482 12.209535 51.627769 83 83 83
 2.744729 12.193201 51.558701 71 71 71
 2.675162 12.176910 51.489819 57 57 57
 2.644594 12.341798 52.187038 39 39 39
 2.595374 12.425927 52.542782 34 34 34
 2.541989 12.494061 52.830883 33 33 33
 2.484590 12.545654 53.049042 31 31 31
 2.418359 12.554295 53.085579 32 32 32
 2.356910 12.588975 53.232224 33 33 33
 2.295120 12.623847 53.379681 33 33 33
 2.226801 12.623847 53.379681 33 33 33
 2.159978 12.632596 53.416672 33 33 33
 2.093063 12.641356 53.453716 33 33 33
 2.026054 12.650128 53.490810 32 32 32
 1.958953 12.658914 53.527958 34 34 34
 1.890444 12.658914 53.527958 34 34 34
 1.821936 12.658914 53.527958 34 34 34
 1.754646 12.667710 53.565155 35 35 35
 1.684919 12.658914 53.527958 35 35 35
 1.615289 12.650128 53.490810 35 35 35
 1.546828 12.650128 53.490810 35 35 35
 1.479394 12.658914 53.527958 35 35 35
 1.406977 12.623847 53.379681 34 34 34
 1.337732 12.615111 53.342739 34 34 34
 1.273868 12.658914 53.527958 33 33 33
 1.207876 12.685342 53.639706 33 33 33
 1.136852 12.658914 53.527958 32 32 32
 1.068343 12.658914 53.527958 32 32 32
 0.999835 12.658914 53.527958 32 32 32
 0.931974 12.667710 53.565155 32 32 32
 0.861024 12.632596 53.416672 30 30 30
 0.791014 12.606387 53.305851 30 30 30
 0.723790 12.623847 53.379681 30 30 30
 0.655472 12.623847 53.379681 30 30 30
 0.587560 12.632596 53.416672 30 30 30
 0.519554 12.641356 53.453716 32 32 32
 0.450828 12.632596 53.416672 37 37 37
 0.381669 12.606387 53.305851 36 36 36
 0.313878 12.623847 53.379681 31 31 31
 0.245730 12.632596 53.416672 31 31 31
 0.177241 12.623847 53.379681 32 32 32
 0.108922 12.623847 53.379681 33 33 33
 0.040576 12.615111 53.342739 34 34 34
 -0.027677 12.606387 53.305851 35 35 35
 -0.095967 12.615111 53.342739 35 35 35
 -0.164125 12.606387 53.305851 36 36 36
 -0.232349 12.606387 53.305851 36 36 36
 -0.300573 12.606387 53.305851 37 37 37
 -0.368797 12.606387 53.305851 37 37 37
 -0.437022 12.606387 53.305851 37 37 37
 -0.504897 12.597675 53.269012 36 36 36
 -0.573074 12.597675 53.269012 36 36 36
 -0.641251 12.597675 53.269012 36 36 36
 -0.709428 12.597675 53.269012 36 36 36
 -0.777605 12.597675 53.269012 36 36 36
 -0.845782 12.597675 53.269012 36 36 36
 -0.913327 12.588975 53.232224 37 37 37
 -0.981457 12.588975 53.232224 37 37 37
 -1.049587 12.588975 53.232224 37 37 37
 -1.117717 12.588975 53.232224 37 37 37
 -1.185847 12.588975 53.232224 37 37 37
 -1.253112 12.580287 53.195484 37 37 37
 -1.321195 12.580287 53.195484 37 37 37
 -1.389278 12.580287 53.195484 38 38 38
 -1.457361 12.580287 53.195484 38 38 38
 -1.525443 12.580287 53.195484 37 37 37
 -1.592427 12.571610 53.158798 37 37 37
 -1.661609 12.580287 53.195484 38 38 38
 -1.729692 12.580287 53.195484 40 40 40
 -1.796535 12.571610 53.158798 40 40 40
 -1.864571 12.571610 53.158798 40 40 40
 -1.932607 12.571610 53.158798 40 40 40
 -1.999264 12.562946 53.122162 39 39 39
 -2.067253 12.562946 53.122162 38 38 38
 -2.136715 12.571610 53.158798 38 38 38
 -2.203232 12.562946 53.122162 37 37 37
 -2.271221 12.562946 53.122162 37 37 37
 -2.337599 12.554295 53.085579 37 37 37
 -2.405541 12.554295 53.085579 39 39 39
 -2.471781 12.545654 53.049042 39 39 39
 -2.539676 12.545654 53.049042 39 39 39
 -2.607572 12.545654 53.049042 39 39 39
 -2.675467 12.545654 53.049042 39 39 39
 -2.741476 12.537025 53.012558 39 39 39
 -2.809325 12.537025 53.012558 38 38 38
 -2.877174 12.537025 53.012558 38 38 38
 -2.945022 12.537025 53.012558 38 38 38
 -3.012871 12.537025 53.012558 38 38 38
 -3.078603 12.528409 52.976124 38 38 38
 -3.144244 12.519805 52.939739 38 38 38
 -3.211999 12.519805 52.939739 38 38 38
 -3.279755 12.519805 52.939739 39 39 39
 -3.347511 12.519805 52.939739 38 38 38
 -3.415266 12.519805 52.939739 38 38 38
 -3.483022 12.519805 52.939739 38 38 38
 -3.548340 12.511211 52.903404 38 38 38
 -3.616050 12.511211 52.903404 40 40 40
 -3.683758 12.511211 52.903404 41 41 41
 -3.751468 12.511211 52.903404 41 41 41
 -3.816557 12.502630 52.867119 41 41 41
 -3.881558 12.494061 52.830883 41 41 41
 -3.951883 12.502630 52.867119 42 42 42
 -4.016790 12.494061 52.830883 42 42 42
 -4.084406 12.494061 52.830883 42 42 42
 -4.152023 12.494061 52.830883 42 42 42
 -4.219639 12.494061 52.830883 42 42 42
 -4.284319 12.485504 52.794697 42 42 42
 -4.351889 12.485504 52.794697 42 42 42
 -4.419459 12.485504 52.794697 42 42 42
 -4.487029 12.485504 52.794697 42 42 42
 4.438969 12.383438 52.081257 120 120 120
 4.369359 12.375076 52.046089 119 119 119
 4.302748 12.375076 52.046089 118 118 118
 4.236136 12.375076 52.046089 118 118 118
 4.169524 12.375076 52.046089 116 116 116
 4.102912 12.375076 52.046089 115 115 115
 4.036300 12.375076 52.046089 114 114 114
 3.969688 12.375076 52.046089 116 116 116
 3.900443 12.366726 52.010971 117 117 117
 3.833876 12.366726 52.010971 117 117 117
 3.764769 12.358387 51.975899 117 117 117
 3.698247 12.358387 51.975899 118 118 118
 3.629278 12.350060 51.940876 118 118 118
 3.562800 12.350060 51.940876 118 118 118
 3.496323 12.350060 51.940876 117 117 117
 3.429846 12.350060 51.940876 116 116 116
 3.363369 12.350060 51.940876 116 116 116
 3.294672 12.341743 51.905899 116 116 116
 3.230414 12.350060 51.940876 115 115 115
 3.161807 12.341743 51.905899 115 115 115
 3.095374 12.341743 51.905899 114 114 114
 3.026903 12.333437 51.870968 110 110 110
 2.956537 12.316860 51.801250 101 101 101
 2.882489 12.283839 51.662373 97 97 97
 2.814482 12.275611 51.627769 87 87 87
 2.746566 12.267395 51.593212 80 80 80
 2.675162 12.242811 51.489819 66 66 66
 2.626810 12.325143 51.836086 47 47 47
 2.593606 12.484665 52.506989 36 36 36
 2.541989 12.561678 52.830883 34 34 34
 2.486301 12.622236 53.085579 34 34 34
 2.418359 12.622236 53.085579 33 33 33
 2.356910 12.657104 53.232224 34 34 34
 2.295120 12.692166 53.379681 33 33 33
 2.226801 12.692166 53.379681 33 33 33
 2.161476 12.709769 53.453716 34 34 34
 2.093063 12.709769 53.453716 34 34 34
 2.027461 12.727422 53.527958 34 34 34
 1.958953 12.727422 53.527958 34 34 34
 1.890444 12.727422 53.527958 34 34 34
 1.823202 12.736267 53.565155 35 35 35
 1.754646 12.736267 53.565155 36 36 36
 1.684919 12.727422 53.527958 36 36 36
 1.615289 12.718590 53.490810 35 35 35
 1.546828 12.718590 53.490810 35 35 35
 1.479394 12.727422 53.527958 35 35 35
 1.406977 12.692166 53.379681 34 34 34
 1.337732 12.683382 53.342739 34 34 34
 1.273868 12.727422 53.527958 33 33 33
 1.207876 12.753993 53.639706 33 33 33
 1.136852 12.727422 53.527958 32 32 32
 1.068343 12.727422 53.527958 32 32 32
 0.999835 12.727422 53.527958 32 32 32
 0.931974 12.736267 53.565155 32 32 32
 0.861024 12.700962 53.416672 31 31 31
 0.791014 12.674611 53.305851 30 30 30
 0.723790 12.692166 53.379681 30 30 30
 0.655472 12.692166 53.379681 30 30 30
 0.587967 12.709769 53.453716 31 31 31
 0.519915 12.718590 53.490810 34 34 34
 0.451141 12.709769 53.453716 40 40 40
 0.381933 12.683382 53.342739 37 37 37
 0.314096 12.700962 53.416672 31 31 31
 0.245730 12.700962 53.416672 31 31 31
 0.177241 12.692166 53.379681 32 32 32
 0.108922 12.692166 53.379681 33 33 33
 0.040604 12.692166 53.379681 33 33 33
 -0.027696 12.683382 53.342739 34 34 34
 -0.095967 12.683382 53.342739 35 35 35
 -0.164125 12.674611 53.305851 36 36 36
 -0.232510 12.683382 53.342739 36 36 36
 -0.300573 12.674611 53.305851 37 37 37
 -0.368797 12.674611 53.305851 37 37 37
 -0.437022 12.674611 53.305851 37 37 37
 -0.504897 12.665852 53.269012 36 36 36
 -0.573470 12.674611 53.305851 36 36 36
 -0.641694 12.674611 53.305851 36 36 36
 -0.709428 12.665852 53.269012 36 36 36
 -0.777605 12.665852 53.269012 36 36 36
 -0.845782 12.665852 53.269012 36 36 36
 -0.913959 12.665852 53.269012 37 37 37
 -0.981457 12.657104 53.232224 37 37 37
 -1.049587 12.657104 53.232224 37 37 37
 -1.117717 12.657104 53.232224 37 37 37
 -1.185847 12.657104 53.232224 37 37 37
 -1.253977 12.657104 53.232224 37 37 37
 -1.321195 12.648370 53.195484 37 37 37
 -1.389278 12.648370 53.195484 38 38 38
 -1.457361 12.648370 53.195484 38 38 38
 -1.525443 12.648370 53.195484 38 38 38
 -1.593526 12.648370 53.195484 38 38 38
 -1.661609 12.648370 53.195484 40 40 40
 -1.729692 12.648370 53.195484 40 40 40
 -1.797775 12.648370 53.195484 40 40 40
 -1.864571 12.639647 53.158798 40 40 40
 -1.932607 12.639647 53.158798 39 39 39
 -2.000643 12.639647 53.158798 38 38 38
 -2.068679 12.639647 53.158798 38 38 38
 -2.136715 12.639647 53.158798 37 37 37
 -2.203232 12.630936 53.122162 37 37 37
 -2.271221 12.630936 53.122162 37 37 37
 -2.337599 12.622236 53.085579 37 37 37
 -2.405541 12.622236 53.085579 37 37 37
 -2.473483 12.622236 53.085579 38 38 38
 -2.541425 12.622236 53.085579 39 39 39
 -2.607572 12.613549 53.049042 39 39 39
 -2.675467 12.613549 53.049042 38 38 38
 -2.743363 12.613549 53.049042 37 37 37
 -2.811258 12.613549 53.049042 39 39 39
 -2.877174 12.604875 53.012558 38 38 38
 -2.945022 12.604875 53.012558 38 38 38
 -3.012871 12.604875 53.012558 38 38 38
 -3.078603 12.596211 52.976124 38 38 38
 -3.144244 12.587561 52.939739 38 38 38
 -3.214207 12.596211 52.976124 40 40 40
 -3.279755 12.587561 52.939739 39 39 39
 -3.347511 12.587561 52.939739 37 37 37
 -3.415266 12.587561 52.939739 38 38 38
 -3.483022 12.587561 52.939739 38 38 38
 -3.548340 12.578921 52.903404 38 38 38
 -3.616050 12.578921 52.903404 40 40 40
 -3.683758 12.578921 52.903404 41 41 41
 -3.751468 12.578921 52.903404 42 42 42
 -3.816557 12.570293 52.867119 42 42 42
 -3.884220 12.570293 52.867119 42 42 42
 -3.951883 12.570293 52.867119 42 42 42
 -4.019545 12.570293 52.867119 42 42 42
 -4.084406 12.561678 52.830883 42 42 42
 -4.152023 12.561678 52.830883 42 42 42
 -4.219639 12.561678 52.830883 42 42 42
 -4.284319 12.553074 52.794697 42 42 42
 -4.351889 12.553074 52.794697 42 42 42
 -4.419459 12.553074 52.794697 42 42 42
 -4.487029 12.553074 52.794697 42 42 42
 4.435971 12.441688 52.046089 121 121 121
 4.369359 12.441688 52.046089 120 120 120
 4.302748 12.441688 52.046089 120 120 120
 4.236136 12.441688 52.046089 119 119 119
 4.166711 12.433292 52.010971 119 119 119
 4.102912 12.441688 52.046089 117 117 117
 4.036300 12.441688 52.046089 116 116 116
 3.969688 12.441688 52.046089 117 117 117
 3.900443 12.433292 52.010971 120 120 120
 3.831291 12.424909 51.975899 120 120 120
 3.764769 12.424909 51.975899 119 119 119
 3.695755 12.416536 51.940876 121 121 121
 3.629278 12.416536 51.940876 121 121 121
 3.562800 12.416536 51.940876 119 119 119
 3.496323 12.416536 51.940876 118 118 118
 3.429846 12.416536 51.940876 117 117 117
 3.363369 12.416536 51.940876 116 116 116
 3.294672 12.408175 51.905899 117 117 117
 3.228239 12.408175 51.905899 117 117 117
 3.161807 12.408175 51.905899 116 116 116
 3.095374 12.408175 51.905899 116 116 116
 3.026903 12.399825 51.870968 112 112 112
 2.956537 12.383159 51.801250 104 104 104
 2.882489 12.349959 51.662373 97 97 97
 2.814482 12.341688 51.627769 94 94 94
 2.746566 12.333426 51.593212 86 86 86
 2.675162 12.308711 51.489819 73 73 73
 2.612753 12.325177 51.558701 56 56 56
 2.586558 12.517758 52.364307 40 40 40
 2.541989 12.629294 52.830883 35 35 35
 2.486301 12.690179 53.085579 35 35 35
 2.418359 12.690179 53.085579 35 35 35
 2.358538 12.734029 53.269012 35 35 35
 2.296710 12.769328 53.416672 34 34 34
 2.228344 12.769328 53.416672 33 33 33
 2.161476 12.778183 53.453716 34 34 34
 2.094515 12.787050 53.490810 35 35 35
 2.028870 12.804823 53.565155 35 35 35
 1.958953 12.795931 53.527958 35 35 35
 1.891758 12.804823 53.565155 35 35 35
 1.823202 12.804823 53.565155 36 36 36
 1.754646 12.804823 53.565155 36 36 36
 1.684919 12.795931 53.527958 36 36 36
 1.616411 12.795931 53.527958 36 36 36
 1.547902 12.795931 53.527958 36 36 36
 1.479394 12.795931 53.527958 35 35 35
 1.406977 12.760485 53.379681 34 34 34
 1.338658 12.760485 53.379681 34 34 34
 1.273868 12.795931 53.527958 34 34 34
 1.207876 12.822644 53.639706 34 34 34
 1.136852 12.795931 53.527958 34 34 34
 1.069086 12.804823 53.565155 32 32 32
 0.999835 12.795931 53.527958 32 32 32
 0.931974 12.804823 53.565155 32 32 32
 0.861621 12.778183 53.453716 32 32 32
 0.791561 12.751654 53.342739 32 32 32
 0.723790 12.760485 53.379681 31 31 31
 0.655472 12.760485 53.379681 31 31 31
 0.588376 12.787050 53.490810 34 34 34
 0.520276 12.795931 53.527958 37 37 37
 0.451454 12.787050 53.490810 38 38 38
 0.381933 12.751654 53.342739 35 35 35
 0.314096 12.769328 53.416672 30 30 30
 0.245730 12.769328 53.416672 31 31 31
 0.177364 12.769328 53.416672 31 31 31
 0.108922 12.760485 53.379681 32 32 32
 0.040604 12.760485 53.379681 33 33 33
 -0.027696 12.751654 53.342739 34 34 34
 -0.095967 12.751654 53.342739 35 35 35
 -0.164125 12.742835 53.305851 36 36 36
 -0.232510 12.751654 53.342739 36 36 36
 -0.300781 12.751654 53.342739 37 37 37
 -0.368797 12.742835 53.305851 37 37 37
 -0.437022 12.742835 53.305851 37 37 37
 -0.505246 12.742835 53.305851 36 36 36
 -0.573470 12.742835 53.305851 36 36 36
 -0.641694 12.742835 53.305851 36 36 36
 -0.709918 12.742835 53.305851 36 36 36
 -0.777605 12.734029 53.269012 36 36 36
 -0.845782 12.734029 53.269012 36 36 36
 -0.913959 12.734029 53.269012 37 37 37
 -0.982136 12.734029 53.269012 37 37 37
 -1.049587 12.725235 53.232224 36 36 36
 -1.117717 12.725235 53.232224 36 36 36
 -1.185847 12.725235 53.232224 37 37 37
 -1.253977 12.725235 53.232224 37 37 37
 -1.321195 12.716453 53.195484 37 37 37
 -1.389278 12.716453 53.195484 37 37 37
 -1.457361 12.716453 53.195484 38 38 38
 -1.525443 12.716453 53.195484 38 38 38
 -1.593526 12.716453 53.195484 39 39 39
 -1.661609 12.716453 53.195484 40 40 40
 -1.729692 12.716453 53.195484 40 40 40
 -1.797775 12.716453 53.195484 40 40 40
 -1.864571 12.707683 53.158798 40 40 40
 -1.932607 12.707683 53.158798 38 38 38
 -2.000643 12.707683 53.158798 38 38 38
 -2.068679 12.707683 53.158798 38 38 38
 -2.136715 12.707683 53.158798 37 37 37
 -2.203232 12.698925 53.122162 37 37 37
 -2.271221 12.698925 53.122162 37 37 37
 -2.337599 12.690179 53.085579 37 37 37
 -2.405541 12.690179 53.085579 38 38 38
 -2.473483 12.690179 53.085579 38 38 38
 -2.541425 12.690179 53.085579 39 39 39
 -2.609368 12.690179 53.085579 39 39 39
 -2.675467 12.681445 53.049042 39 39 39
 -2.743363 12.681445 53.049042 38 38 38
 -2.811258 12.681445 53.049042 40 40 40
 -2.879154 12.681445 53.049042 39 39 39
 -2.945022 12.672724 53.012558 39 39 39
 -3.012871 12.672724 53.012558 38 38 38
 -3.080720 12.672724 53.012558 39 39 39
 -3.146405 12.664014 52.976124 40 40 40
 -3.214207 12.664014 52.976124 40 40 40
 -3.279755 12.655315 52.939739 39 39 39
 -3.349811 12.664014 52.976124 38 38 38
 -3.415266 12.655315 52.939739 38 38 38
 -3.483022 12.655315 52.939739 38 38 38
 -3.548340 12.646630 52.903404 39 39 39
 -3.616050 12.646630 52.903404 40 40 40
 -3.683758 12.646630 52.903404 41 41 41
 -3.751468 12.646630 52.903404 42 42 42
 -3.816557 12.637956 52.867119 43 43 43
 -3.884220 12.637956 52.867119 43 43 43
 -3.951883 12.637956 52.867119 42 42 42
 -4.019545 12.637956 52.867119 42 42 42
 -4.084406 12.629294 52.830883 42 42 42
 -4.152023 12.629294 52.830883 42 42 42
 -4.219639 12.629294 52.830883 43 43 43
 -4.287255 12.629294 52.830883 42 42 42
 -4.351889 12.620644 52.794697 42 42 42
 -4.419459 12.620644 52.794697 42 42 42
 -4.487029 12.620644 52.794697 42 42 42
 4.435971 12.508300 52.046089 122 122 122
 4.369359 12.508300 52.046089 122 122 122
 4.302748 12.508300 52.046089 121 121 121
 4.236136 12.508300 52.046089 120 120 120
 4.166711 12.499860 52.010971 120 120 120
 4.100144 12.499860 52.010971 117 117 117
 4.030857 12.491431 51.975899 122 122 122
 3.964335 12.491431 51.975899 125 125 125
 3.897813 12.491431 51.975899 123 123 123
 3.831291 12.491431 51.975899 123 123 123
 3.764769 12.491431 51.975899 123 123 123
 3.695755 12.483013 51.940876 123 123 123
 3.629278 12.483013 51.940876 122 122 122
 3.562800 12.483013 51.940876 121 121 121
 3.496323 12.483013 51.940876 120 120 120
 3.429846 12.483013 51.940876 119 119 119
 3.361104 12.474607 51.905899 118 118 118
 3.294672 12.474607 51.905899 117 117 117
 3.228239 12.474607 51.905899 117 117 117
 3.161807 12.474607 51.905899 117 117 117
 3.095374 12.474607 51.905899 117 117 117
 3.026903 12.466212 51.870968 115 115 115
 2.956537 12.449457 51.801250 106 106 106
 2.882489 12.416080 51.662373 98 98 98
 2.814482 12.407764 51.627769 99 99 99
 2.746566 12.399459 51.593212 90 90 90
 2.676950 12.382882 51.524239 80 80 80
 2.611006 12.382882 51.524239 61 61 61
 2.581297 12.559181 52.257801 44 44 44
 2.541989 12.696910 52.830883 37 37 37
 2.486301 12.758121 53.085579 35 35 35
 2.418359 12.758121 53.085579 36 36 36
 2.358538 12.802206 53.269012 36 36 36
 2.298303 12.846597 53.453716 35 35 35
 2.229890 12.846597 53.453716 35 35 35
 2.162976 12.855512 53.490810 35 35 35
 2.094515 12.855512 53.490810 35 35 35
 2.028870 12.873379 53.565155 35 35 35
 1.958953 12.864439 53.527958 35 35 35
 1.891758 12.873379 53.565155 35 35 35
 1.824470 12.882331 53.602406 36 36 36
 1.755866 12.882331 53.602406 35 35 35
 1.684919 12.864439 53.527958 36 36 36
 1.616411 12.864439 53.527958 36 36 36
 1.547902 12.864439 53.527958 36 36 36
 1.479394 12.864439 53.527958 36 36 36
 1.407952 12.837694 53.416672 35 35 35
 1.338658 12.828803 53.379681 35 35 35
 1.274754 12.873379 53.565155 36 36 36
 1.207876 12.891295 53.639706 36 36 36
 1.136852 12.864439 53.527958 36 36 36
 1.069829 12.882331 53.602406 36 36 36
 1.001225 12.882331 53.602406 37 37 37
 0.932622 12.882331 53.602406 35 35 35
 0.861621 12.846597 53.453716 35 35 35
 0.791561 12.819925 53.342739 35 35 35
 0.724292 12.837694 53.416672 32 32 32
 0.655926 12.837694 53.416672 33 33 33
 0.588376 12.855512 53.490810 35 35 35
 0.520637 12.873379 53.565155 36 36 36
 0.452396 12.882331 53.602406 33 33 33
 0.383259 12.864439 53.527958 29 29 29
 0.314096 12.837694 53.416672 30 30 30
 0.245900 12.846597 53.453716 30 30 30
 0.177364 12.837694 53.416672 30 30 30
 0.108998 12.837694 53.416672 31 31 31
 0.040604 12.828803 53.379681 32 32 32
 -0.027696 12.819925 53.342739 34 34 34
 -0.095967 12.819925 53.342739 35 35 35
 -0.164238 12.819925 53.342739 36 36 36
 -0.232510 12.819925 53.342739 36 36 36
 -0.300781 12.819925 53.342739 37 37 37
 -0.369053 12.819925 53.342739 37 37 37
 -0.437324 12.819925 53.342739 37 37 37
 -0.505246 12.811060 53.305851 36 36 36
 -0.573470 12.811060 53.305851 36 36 36
 -0.641694 12.811060 53.305851 36 36 36
 -0.709918 12.811060 53.305851 36 36 36
 -0.777605 12.802206 53.269012 36 36 36
 -0.845782 12.802206 53.269012 37 37 37
 -0.913959 12.802206 53.269012 37 37 37
 -0.982136 12.802206 53.269012 36 36 36
 -1.050313 12.802206 53.269012 36 36 36
 -1.118490 12.802206 53.269012 36 36 36
 -1.185847 12.793365 53.232224 37 37 37
 -1.253977 12.793365 53.232224 37 37 37
 -1.322107 12.793365 53.232224 37 37 37
 -1.390237 12.793365 53.232224 37 37 37
 -1.457361 12.784535 53.195484 37 37 37
 -1.525443 12.784535 53.195484 38 38 38
 -1.593526 12.784535 53.195484 39 39 39
 -1.661609 12.784535 53.195484 40 40 40
 -1.729692 12.784535 53.195484 40 40 40
 -1.797775 12.784535 53.195484 40 40 40
 -1.865858 12.784535 53.195484 40 40 40
 -1.932607 12.775719 53.158798 38 38 38
 -2.000643 12.775719 53.158798 38 38 38
 -2.068679 12.775719 53.158798 37 37 37
 -2.136715 12.775719 53.158798 37 37 37
 -2.203232 12.766913 53.122162 37 37 37
 -2.271221 12.766913 53.122162 37 37 37
 -2.339210 12.766913 53.122162 37 37 37
 -2.407199 12.766913 53.122162 39 39 39
 -2.473483 12.758121 53.085579 39 39 39
 -2.541425 12.758121 53.085579 40 40 40
 -2.609368 12.758121 53.085579 40 40 40
 -2.677310 12.758121 53.085579 40 40 40
 -2.745252 12.758121 53.085579 40 40 40
 -2.811258 12.749341 53.049042 40 40 40
 -2.879154 12.749341 53.049042 40 40 40
 -2.947049 12.749341 53.049042 41 41 41
 -3.012871 12.740572 53.012558 39 39 39
 -3.080720 12.740572 53.012558 39 39 39
 -3.146405 12.731815 52.976124 40 40 40
 -3.214207 12.731815 52.976124 40 40 40
 -3.282009 12.731815 52.976124 40 40 40
 -3.349811 12.731815 52.976124 39 39 39
 -3.415266 12.723071 52.939739 38 38 38
 -3.483022 12.723071 52.939739 38 38 38
 -3.550777 12.723071 52.939739 40 40 40
 -3.618533 12.723071 52.939739 41 41 41
 -3.683758 12.714339 52.903404 42 42 42
 -3.751468 12.714339 52.903404 42 42 42
 -3.819177 12.714339 52.903404 43 43 43
 -3.884220 12.705619 52.867119 43 43 43
 -3.951883 12.705619 52.867119 43 43 43
 -4.019545 12.705619 52.867119 42 42 42
 -4.087208 12.705619 52.867119 42 42 42
 -4.152023 12.696910 52.830883 43 43 43
 -4.219639 12.696910 52.830883 43 43 43
 -4.287255 12.696910 52.830883 42 42 42
 -4.354872 12.696910 52.830883 42 42 42
 -4.419459 12.688213 52.794697 42 42 42
 -4.487029 12.688213 52.794697 42 42 42
 4.435971 12.574912 52.046089 124 124 124
 4.369359 12.574912 52.046089 123 123 123
 4.302748 12.574912 52.046089 122 122 122
 4.236136 12.574912 52.046089 121 121 121
 4.166711 12.566426 52.010971 120 120 120
 4.100144 12.566426 52.010971 122 122 122
 4.030857 12.557953 51.975899 125 125 125
 3.964335 12.557953 51.975899 125 125 125
 3.897813 12.557953 51.975899 125 125 125
 3.831291 12.557953 51.975899 125 125 125
 3.764769 12.557953 51.975899 125 125 125
 3.695755 12.549491 51.940876 125 125 125
 3.629278 12.549491 51.940876 124 124 124
 3.562800 12.549491 51.940876 123 123 123
 3.496323 12.549491 51.940876 122 122 122
 3.429846 12.549491 51.940876 121 121 121
 3.361104 12.541039 51.905899 120 120 120
 3.294672 12.541039 51.905899 119 119 119
 3.228239 12.541039 51.905899 120 120 120
 3.161807 12.541039 51.905899 121 121 121
 3.095374 12.541039 51.905899 120 120 120
 3.026903 12.532600 51.870968 117 117 117
 2.956537 12.515756 51.801250 111 111 111
 2.882489 12.482202 51.662373 100 100 100
 2.814482 12.473841 51.627769 98 98 98
 2.746566 12.465491 51.593212 90 90 90
 2.676950 12.448826 51.524239 82 82 82
 2.611006 12.448826 51.524239 66 66 66
 2.557027 12.507350 51.766460 51 51 51
 2.540247 12.755784 52.794697 39 39 39
 2.486301 12.826063 53.085579 35 35 35
 2.418359 12.826063 53.085579 36 36 36
 2.360169 12.879284 53.305851 35 35 35
 2.298303 12.915009 53.453716 35 35 35
 2.229890 12.915009 53.453716 35 35 35
 2.164478 12.932947 53.527958 36 36 36
 2.095970 12.932947 53.527958 35 35 35
 2.028870 12.941935 53.565155 35 35 35
 1.960314 12.941935 53.565155 35 35 35
 1.891758 12.941935 53.565155 35 35 35
 1.824470 12.950934 53.602406 35 35 35
 1.755866 12.950934 53.602406 35 35 35
 1.686090 12.941935 53.565155 35 35 35
 1.616411 12.932947 53.527958 36 36 36
 1.547902 12.932947 53.527958 36 36 36
 1.480422 12.941935 53.565155 37 37 37
 1.407952 12.906059 53.416672 37 37 37
 1.338658 12.897122 53.379681 36 36 36
 1.274754 12.941935 53.565155 37 37 37
 1.208718 12.968972 53.677059 37 37 37
 1.136852 12.932947 53.527958 37 37 37
 1.069829 12.950934 53.602406 37 37 37
 1.001225 12.950934 53.602406 37 37 37
 0.932622 12.950934 53.602406 36 36 36
 0.861621 12.915009 53.453716 35 35 35
 0.791561 12.888197 53.342739 34 34 34
 0.724292 12.906059 53.416672 30 30 30
 0.655926 12.906059 53.416672 31 31 31
 0.588784 12.932947 53.527958 34 34 34
 0.520999 12.950934 53.602406 34 34 34
 0.452396 12.950934 53.602406 33 33 33
 0.383259 12.932947 53.527958 31 31 31
 0.314096 12.906059 53.416672 30 30 30
 0.245900 12.915009 53.453716 30 30 30
 0.177487 12.915009 53.453716 30 30 30
 0.108998 12.906059 53.416672 31 31 31
 0.040604 12.897122 53.379681 32 32 32
 -0.027715 12.897122 53.379681 34 34 34
 -0.096034 12.897122 53.379681 35 35 35
 -0.164238 12.888197 53.342739 36 36 36
 -0.232510 12.888197 53.342739 36 36 36
 -0.300781 12.888197 53.342739 37 37 37
 -0.369053 12.888197 53.342739 37 37 37
 -0.437324 12.888197 53.342739 37 37 37
 -0.505246 12.879284 53.305851 36 36 36
 -0.573470 12.879284 53.305851 36 36 36
 -0.641694 12.879284 53.305851 36 36 36
 -0.709918 12.879284 53.305851 36 36 36
 -0.778142 12.879284 53.305851 36 36 36
 -0.846367 12.879284 53.305851 36 36 36
 -0.913959 12.870383 53.269012 36 36 36
 -0.982136 12.870383 53.269012 36 36 36
 -1.050313 12.870383 53.269012 36 36 36
 -1.118490 12.870383 53.269012 37 37 37
 -1.185847 12.861495 53.232224 37 37 37
 -1.253977 12.861495 53.232224 37 37 37
 -1.322107 12.861495 53.232224 38 38 38
 -1.390237 12.861495 53.232224 38 38 38
 -1.458367 12.861495 53.232224 38 38 38
 -1.526497 12.861495 53.232224 38 38 38
 -1.593526 12.852618 53.195484 39 39 39
 -1.662757 12.861495 53.232224 40 40 40
 -1.729692 12.852618 53.195484 40 40 40
 -1.797775 12.852618 53.195484 40 40 40
 -1.865858 12.852618 53.195484 40 40 40
 -1.932607 12.843755 53.158798 38 38 38
 -2.000643 12.843755 53.158798 37 37 37
 -2.068679 12.843755 53.158798 37 37 37
 -2.136715 12.843755 53.158798 37 37 37
 -2.203232 12.834903 53.122162 37 37 37
 -2.271221 12.834903 53.122162 37 37 37
 -2.339210 12.834903 53.122162 37 37 37
 -2.407199 12.834903 53.122162 38 38 38
 -2.473483 12.826063 53.085579 38 38 38
 -2.541425 12.826063 53.085579 39 39 39
 -2.609368 12.826063 53.085579 40 40 40
 -2.677310 12.826063 53.085579 40 40 40
 -2.745252 12.826063 53.085579 40 40 40
 -2.811258 12.817236 53.049042 40 40 40
 -2.879154 12.817236 53.049042 40 40 40
 -2.947049 12.817236 53.049042 39 39 39
 -3.012871 12.808421 53.012558 39 39 39
 -3.080720 12.808421 53.012558 39 39 39
 -3.148569 12.808421 53.012558 37 37 37
 -3.214207 12.799618 52.976124 39 39 39
 -3.282009 12.799618 52.976124 39 39 39
 -3.349811 12.799618 52.976124 38 38 38
 -3.415266 12.790827 52.939739 38 38 38
 -3.483022 12.790827 52.939739 38 38 38
 -3.550777 12.790827 52.939739 40 40 40
 -3.618533 12.790827 52.939739 41 41 41
 -3.683758 12.782048 52.903404 42 42 42
 -3.751468 12.782048 52.903404 42 42 42
 -3.819177 12.782048 52.903404 42 42 42
 -3.884220 12.773281 52.867119 42 42 42
 -3.951883 12.773281 52.867119 42 42 42
 -4.019545 12.773281 52.867119 42 42 42
 -4.087208 12.773281 52.867119 42 42 42
 -4.154871 12.773281 52.867119 42 42 42
 -4.219639 12.764526 52.830883 42 42 42
 -4.287255 12.764526 52.830883 42 42 42
 -4.354872 12.764526 52.830883 42 42 42
 -4.422488 12.764526 52.830883 42 42 42
 -4.487029 12.755784 52.794697 42 42 42
 4.435971 12.641523 52.046089 126 126 126
 4.369359 12.641523 52.046089 124 124 124
 4.302748 12.641523 52.046089 124 124 124
 4.233277 12.632994 52.010971 124 124 124
 4.166711 12.632994 52.010971 123 123 123
 4.097379 12.624475 51.975899 125 125 125
 4.030857 12.624475 51.975899 126 126 126
 3.964335 12.624475 51.975899 126 126 126
 3.897813 12.624475 51.975899 125 125 125
 3.831291 12.624475 51.975899 125 125 125
 3.764769 12.624475 51.975899 126 126 126
 3.695755 12.615968 51.940876 126 126 126
 3.629278 12.615968 51.940876 125 125 125
 3.562800 12.615968 51.940876 124 124 124
 3.496323 12.615968 51.940876 123 123 123
 3.429846 12.615968 51.940876 122 122 122
 3.361104 12.607472 51.905899 121 121 121
 3.294672 12.607472 51.905899 122 122 122
 3.226067 12.598989 51.870968 126 126 126
 3.159679 12.598989 51.870968 126 126 126
 3.093291 12.598989 51.870968 125 125 125
 3.026903 12.598989 51.870968 120 120 120
 2.956537 12.582054 51.801250 110 110 110
 2.882489 12.548322 51.662373 101 101 101
 2.814482 12.539917 51.627769 99 99 99
 2.746566 12.531524 51.593212 92 92 92
 2.676950 12.514771 51.524239 85 85 85
 2.609262 12.506411 51.489819 75 75 75
 2.550177 12.539917 51.627769 57 57 57
 2.540247 12.823354 52.794697 40 40 40
 2.486301 12.894006 53.085579 35 35 35
 2.418359 12.894006 53.085579 35 35 35
 2.360169 12.947508 53.305851 35 35 35
 2.298303 12.983423 53.453716 35 35 35
 2.231437 12.992434 53.490810 35 35 35
 2.164478 13.001455 53.527958 36 36 36
 2.095970 13.001455 53.527958 36 36 36
 2.028870 13.010490 53.565155 35 35 35
 1.960314 13.010490 53.565155 35 35 35
 1.891758 13.010490 53.565155 35 35 35
 1.824470 13.019539 53.602406 35 35 35
 1.755866 13.019539 53.602406 35 35 35
 1.686090 13.010490 53.565155 36 36 36
 1.616411 13.001455 53.527958 36 36 36
 1.547902 13.001455 53.527958 37 37 37
 1.480422 13.010490 53.565155 38 38 38
 1.407952 12.974425 53.416672 38 38 38
 1.338658 12.965441 53.379681 37 37 37
 1.274754 13.010490 53.565155 37 37 37
 1.208718 13.037671 53.677059 38 38 38
 1.137642 13.010490 53.565155 38 38 38
 1.069829 13.019539 53.602406 37 37 37
 1.001225 13.019539 53.602406 37 37 37
 0.933271 13.028599 53.639706 33 33 33
 0.868852 13.092375 53.902279 27 27 27
 0.799864 13.092375 53.902279 25 25 25
 0.728330 13.046757 53.714466 24 24 24
 0.659583 13.046757 53.714466 25 25 25
 0.590013 13.028599 53.639706 30 30 30
 0.520999 13.019539 53.602406 34 34 34
 0.452710 13.028599 53.639706 36 36 36
 0.383525 13.010490 53.565155 35 35 35
 0.314532 12.992434 53.490810 33 33 33
 0.245900 12.983423 53.453716 31 31 31
 0.177487 12.983423 53.453716 31 31 31
 0.109074 12.983423 53.453716 32 32 32
 0.040632 12.974425 53.416672 33 33 33
 -0.027715 12.965441 53.379681 34 34 34
 -0.096034 12.965441 53.379681 35 35 35
 -0.164238 12.956468 53.342739 36 36 36
 -0.232510 12.956468 53.342739 36 36 36
 -0.300781 12.956468 53.342739 36 36 36
 -0.369053 12.956468 53.342739 37 37 37
 -0.437324 12.956468 53.342739 37 37 37
 -0.505246 12.947508 53.305851 37 37 37
 -0.573470 12.947508 53.305851 36 36 36
 -0.641694 12.947508 53.305851 36 36 36
 -0.709918 12.947508 53.305851 36 36 36
 -0.778142 12.947508 53.305851 36 36 36
 -0.846367 12.947508 53.305851 36 36 36
 -0.914591 12.947508 53.305851 37 37 37
 -0.982136 12.938560 53.269012 37 37 37
 -1.050313 12.938560 53.269012 37 37 37
 -1.118490 12.938560 53.269012 37 37 37
 -1.185847 12.929625 53.232224 37 37 37
 -1.253977 12.929625 53.232224 38 38 38
 -1.322107 12.929625 53.232224 39 39 39
 -1.390237 12.929625 53.232224 39 39 39
 -1.458367 12.929625 53.232224 40 40 40
 -1.526497 12.929625 53.232224 38 38 38
 -1.593526 12.920701 53.195484 39 39 39
 -1.662757 12.929625 53.232224 40 40 40
 -1.729692 12.920701 53.195484 40 40 40
 -1.797775 12.920701 53.195484 41 41 41
 -1.865858 12.920701 53.195484 40 40 40
 -1.933941 12.920701 53.195484 40 40 40
 -2.002024 12.920701 53.195484 38 38 38
 -2.068679 12.911791 53.158798 37 37 37
 -2.136715 12.911791 53.158798 37 37 37
 -2.204751 12.911791 53.158798 37 37 37
 -2.271221 12.902892 53.122162 37 37 37
 -2.339210 12.902892 53.122162 37 37 37
 -2.407199 12.902892 53.122162 38 38 38
 -2.475188 12.902892 53.122162 40 40 40
 -2.541425 12.894006 53.085579 39 39 39
 -2.609368 12.894006 53.085579 39 39 39
 -2.677310 12.894006 53.085579 39 39 39
 -2.745252 12.894006 53.085579 39 39 39
 -2.811258 12.885132 53.049042 40 40 40
 -2.879154 12.885132 53.049042 39 39 39
 -2.947049 12.885132 53.049042 38 38 38
 -3.012871 12.876269 53.012558 39 39 39
 -3.080720 12.876269 53.012558 39 39 39
 -3.148569 12.876269 53.012558 38 38 38
 -3.214207 12.867420 52.976124 38 38 38
 -3.282009 12.867420 52.976124 38 38 38
 -3.349811 12.867420 52.976124 38 38 38
 -3.417614 12.867420 52.976124 38 38 38
 -3.483022 12.858582 52.939739 38 38 38
 -3.550777 12.858582 52.939739 40 40 40
 -3.618533 12.858582 52.939739 41 41 41
 -3.683758 12.849757 52.903404 42 42 42
 -3.751468 12.849757 52.903404 42 42 42
 -3.819177 12.849757 52.903404 42 42 42
 -3.884220 12.840944 52.867119 42 42 42
 -3.951883 12.840944 52.867119 42 42 42
 -4.019545 12.840944 52.867119 42 42 42
 -4.087208 12.840944 52.867119 42 42 42
 -4.154871 12.840944 52.867119 42 42 42
 -4.219639 12.832143 52.830883 42 42 42
 -4.287255 12.832143 52.830883 41 41 41
 -4.354872 12.832143 52.830883 42 42 42
 -4.422488 12.832143 52.830883 42 42 42
 -4.487029 12.823354 52.794697 42 42 42
 4.435971 12.708136 52.046089 127 127 127
 4.369359 12.708136 52.046089 126 126 126
 4.302748 12.708136 52.046089 126 126 126
 4.233277 12.699560 52.010971 125 125 125
 4.166711 12.699560 52.010971 125 125 125
 4.097379 12.690997 51.975899 126 126 126
 4.030857 12.690997 51.975899 127 127 127
 3.964335 12.690997 51.975899 128 128 128
 3.897813 12.690997 51.975899 128 128 128
 3.831291 12.690997 51.975899 127 127 127
 3.764769 12.690997 51.975899 127 127 127
 3.695755 12.682446 51.940876 127 127 127
 3.629278 12.682446 51.940876 125 125 125
 3.562800 12.682446 51.940876 125 125 125
 3.496323 12.682446 51.940876 124 124 124
 3.427536 12.673904 51.905899 123 123 123
 3.361104 12.673904 51.905899 123 123 123
 3.294672 12.673904 51.905899 125 125 125
 3.226067 12.665376 51.870968 127 127 127
 3.159679 12.665376 51.870968 126 126 126
 3.093291 12.665376 51.870968 126 126 126
 3.026903 12.665376 51.870968 118 118 118
 2.956537 12.648353 51.801250 114 114 114
 2.882489 12.614443 51.662373 103 103 103
 2.814482 12.605993 51.627769 101 101 101
 2.746566 12.597556 51.593212 94 94 94
 2.676950 12.580714 51.524239 87 87 87
 2.609262 12.572310 51.489819 76 76 76
 2.550177 12.605993 51.627769 60 60 60
 2.512711 12.751184 52.222397 47 47 47
 2.488015 12.970881 53.122162 38 38 38
 2.418359 12.961948 53.085579 35 35 35
 2.360169 13.015732 53.305851 35 35 35
 2.299898 13.060894 53.490810 35 35 35
 2.231437 13.060894 53.490810 35 35 35
 2.164478 13.069964 53.527958 36 36 36
 2.097426 13.079047 53.565155 36 36 36
 2.030281 13.088142 53.602406 36 36 36
 1.960314 13.079047 53.565155 36 36 36
 1.893074 13.088142 53.602406 35 35 35
 1.824470 13.088142 53.602406 35 35 35
 1.757088 13.097250 53.639706 36 36 36
 1.686090 13.079047 53.565155 36 36 36
 1.616411 13.069964 53.527958 36 36 36
 1.547902 13.069964 53.527958 38 38 38
 1.480422 13.079047 53.565155 38 38 38
 1.407952 13.042791 53.416672 39 39 39
 1.339586 13.042791 53.416672 39 39 39
 1.274754 13.079047 53.565155 39 39 39
 1.208718 13.106371 53.677059 38 38 38
 1.137642 13.079047 53.565155 37 37 37
 1.069829 13.088142 53.602406 38 38 38
 1.001922 13.097250 53.639706 33 33 33
 0.937839 13.161363 53.902279 26 26 26
 0.870068 13.179796 53.977772 22 22 22
 0.800424 13.170572 53.939999 21 21 21
 0.728838 13.124650 53.751923 22 22 22
 0.659583 13.115504 53.714466 25 25 25
 0.590013 13.097250 53.639706 28 28 28
 0.521362 13.097250 53.639706 32 32 32
 0.452710 13.097250 53.639706 38 38 38
 0.383525 13.079047 53.565155 35 35 35
 0.314750 13.069964 53.527958 31 31 31
 0.246071 13.060894 53.490810 31 31 31
 0.177487 13.051837 53.453716 30 30 30
 0.109074 13.051837 53.453716 32 32 32
 0.040632 13.042791 53.416672 33 33 33
 -0.027715 13.033759 53.379681 34 34 34
 -0.096034 13.033759 53.379681 35 35 35
 -0.164238 13.024739 53.342739 36 36 36
 -0.232671 13.033759 53.379681 36 36 36
 -0.300990 13.033759 53.379681 37 37 37
 -0.369053 13.024739 53.342739 37 37 37
 -0.437324 13.024739 53.342739 37 37 37
 -0.505595 13.024739 53.342739 37 37 37
 -0.573867 13.024739 53.342739 36 36 36
 -0.641694 13.015732 53.305851 36 36 36
 -0.709918 13.015732 53.305851 36 36 36
 -0.778142 13.015732 53.305851 36 36 36
 -0.846367 13.015732 53.305851 36 36 36
 -0.914591 13.015732 53.305851 38 38 38
 -0.982136 13.006737 53.269012 37 37 37
 -1.050313 13.006737 53.269012 37 37 37
 -1.118490 13.006737 53.269012 37 37 37
 -1.186667 13.006737 53.269012 37 37 37
 -1.254844 13.006737 53.269012 37 37 37
 -1.323021 13.006737 53.269012 38 38 38
 -1.390237 12.997754 53.232224 39 39 39
 -1.459375 13.006737 53.269012 38 38 38
 -1.526497 12.997754 53.232224 38 38 38
 -1.594627 12.997754 53.232224 38 38 38
 -1.662757 12.997754 53.232224 40 40 40
 -1.730887 12.997754 53.232224 41 41 41
 -1.797775 12.988784 53.195484 41 41 41
 -1.865858 12.988784 53.195484 41 41 41
 -1.933941 12.988784 53.195484 40 40 40
 -2.002024 12.988784 53.195484 40 40 40
 -2.068679 12.979827 53.158798 38 38 38
 -2.136715 12.979827 53.158798 37 37 37
 -2.204751 12.979827 53.158798 37 37 37
 -2.271221 12.970881 53.122162 37 37 37
 -2.339210 12.970881 53.122162 37 37 37
 -2.407199 12.970881 53.122162 38 38 38
 -2.475188 12.970881 53.122162 40 40 40
 -2.543177 12.970881 53.122162 41 41 41
 -2.611166 12.970881 53.122162 41 41 41
 -2.677310 12.961948 53.085579 41 41 41
 -2.745252 12.961948 53.085579 40 40 40
 -2.811258 12.953027 53.049042 40 40 40
 -2.879154 12.953027 53.049042 39 39 39
 -2.947049 12.953027 53.049042 38 38 38
 -3.014945 12.953027 53.049042 40 40 40
 -3.080720 12.944118 53.012558 40 40 40
 -3.148569 12.944118 53.012558 40 40 40
 -3.216418 12.944118 53.012558 40 40 40
 -3.282009 12.935223 52.976124 40 40 40
 -3.349811 12.935223 52.976124 39 39 39
 -3.417614 12.935223 52.976124 38 38 38
 -3.485416 12.935223 52.976124 38 38 38
 -3.550777 12.926338 52.939739 40 40 40
 -3.618533 12.926338 52.939739 41 41 41
 -3.686289 12.926338 52.939739 42 42 42
 -3.751468 12.917466 52.903404 42 42 42
 -3.819177 12.917466 52.903404 42 42 42
 -3.886886 12.917466 52.903404 43 43 43
 -3.951883 12.908607 52.867119 42 42 42
 -4.019545 12.908607 52.867119 42 42 42
 -4.087208 12.908607 52.867119 42 42 42
 -4.154871 12.908607 52.867119 42 42 42
 -4.219639 12.899759 52.830883 42 42 42
 -4.287255 12.899759 52.830883 41 41 41
 -4.354872 12.899759 52.830883 41 41 41
 -4.422488 12.899759 52.830883 42 42 42
 -4.490104 12.899759 52.830883 42 42 42
 4.435971 12.774747 52.046089 129 129 129
 4.369359 12.774747 52.046089 128 128 128
 4.299844 12.766128 52.010971 127 127 127
 4.233277 12.766128 52.010971 126 126 126
 4.166711 12.766128 52.010971 127 127 127
 4.097379 12.757519 51.975899 128 128 128
 4.030857 12.757519 51.975899 129 129 129
 3.964335 12.757519 51.975899 130 130 130
 3.897813 12.757519 51.975899 130 130 130
 3.831291 12.757519 51.975899 129 129 129
 3.764769 12.757519 51.975899 128 128 128
 3.695755 12.748922 51.940876 127 127 127
 3.629278 12.748922 51.940876 125 125 125
 3.562800 12.748922 51.940876 125 125 125
 3.496323 12.748922 51.940876 125 125 125
 3.427536 12.740337 51.905899 125 125 125
 3.361104 12.740337 51.905899 125 125 125
 3.294672 12.740337 51.905899 126 126 126
 3.226067 12.731764 51.870968 128 128 128
 3.159679 12.731764 51.870968 127 127 127
 3.093291 12.731764 51.870968 126 126 126
 3.026903 12.731764 51.870968 118 118 118
 2.956537 12.714651 51.801250 116 116 116
 2.882489 12.680563 51.662373 106 106 106
 2.814482 12.672071 51.627769 103 103 103
 2.746566 12.663589 51.593212 95 95 95
 2.676950 12.646658 51.524239 87 87 87
 2.609262 12.638210 51.489819 75 75 75
 2.545063 12.646658 51.524239 67 67 67
 2.482437 12.663589 51.593212 56 56 56
 2.486301 13.029890 53.085579 40 40 40
 2.418359 13.029890 53.085579 36 36 36
 2.360169 13.083956 53.305851 36 36 36
 2.299898 13.129355 53.490810 35 35 35
 2.232987 13.138473 53.527958 36 36 36
 2.165982 13.147603 53.565155 36 36 36
 2.097426 13.147603 53.565155 36 36 36
 2.030281 13.156746 53.602406 36 36 36
 1.960314 13.147603 53.565155 36 36 36
 1.893074 13.156746 53.602406 36 36 36
 1.825740 13.165901 53.639706 36 36 36
 1.757088 13.165901 53.639706 36 36 36
 1.687263 13.156746 53.602406 36 36 36
 1.617534 13.147603 53.565155 38 38 38
 1.547902 13.138473 53.527958 38 38 38
 1.480422 13.147603 53.565155 38 38 38
 1.408929 13.120250 53.453716 40 40 40
 1.339586 13.111157 53.416672 41 41 41
 1.274754 13.147603 53.565155 41 41 41
 1.208718 13.175070 53.677059 38 38 38
 1.137642 13.147603 53.565155 37 37 37
 1.072066 13.184251 53.714466 32 32 32
 1.009651 13.267462 54.053478 25 25 25
 0.940470 13.267462 54.053478 20 20 20
 0.870068 13.248880 53.977772 20 20 20
 0.800424 13.239609 53.939999 21 21 21
 0.728838 13.193445 53.751923 21 21 21
 0.659583 13.184251 53.714466 24 24 24
 0.590424 13.175070 53.677059 29 29 29
 0.521362 13.165901 53.639706 34 34 34
 0.453026 13.175070 53.677059 35 35 35
 0.384059 13.165901 53.639706 31 31 31
 0.314750 13.138473 53.527958 30 30 30
 0.246071 13.129355 53.490810 30 30 30
 0.177610 13.129355 53.490810 30 30 30
 0.109074 13.120250 53.453716 31 31 31
 0.040632 13.111157 53.416672 33 33 33
 -0.027715 13.102078 53.379681 34 34 34
 -0.096034 13.102078 53.379681 35 35 35
 -0.164238 13.093011 53.342739 36 36 36
 -0.232671 13.102078 53.379681 36 36 36
 -0.300990 13.102078 53.379681 37 37 37
 -0.369053 13.093011 53.342739 37 37 37
 -0.437324 13.093011 53.342739 37 37 37
 -0.505595 13.093011 53.342739 36 36 36
 -0.573867 13.093011 53.342739 36 36 36
 -0.642138 13.093011 53.342739 36 36 36
 -0.709918 13.083956 53.305851 36 36 36
 -0.778142 13.083956 53.305851 36 36 36
 -0.846367 13.083956 53.305851 37 37 37
 -0.914591 13.083956 53.305851 38 38 38
 -0.982815 13.083956 53.305851 38 38 38
 -1.050313 13.074914 53.269012 38 38 38
 -1.118490 13.074914 53.269012 37 37 37
 -1.186667 13.074914 53.269012 37 37 37
 -1.254844 13.074914 53.269012 37 37 37
 -1.323021 13.074914 53.269012 37 37 37
 -1.391198 13.074914 53.269012 38 38 38
 -1.459375 13.074914 53.269012 38 38 38
 -1.526497 13.065885 53.232224 40 40 40
 -1.594627 13.065885 53.232224 39 39 39
 -1.662757 13.065885 53.232224 41 41 41
 -1.730887 13.065885 53.232224 41 41 41
 -1.799017 13.065885 53.232224 41 41 41
 -1.865858 13.056868 53.195484 41 41 41
 -1.933941 13.056868 53.195484 41 41 41
 -2.002024 13.056868 53.195484 40 40 40
 -2.070107 13.056868 53.195484 38 38 38
 -2.138190 13.056868 53.195484 38 38 38
 -2.204751 13.047862 53.158798 37 37 37
 -2.272787 13.047862 53.158798 37 37 37
 -2.339210 13.038870 53.122162 37 37 37
 -2.407199 13.038870 53.122162 38 38 38
 -2.475188 13.038870 53.122162 41 41 41
 -2.543177 13.038870 53.122162 41 41 41
 -2.611166 13.038870 53.122162 41 41 41
 -2.677310 13.029890 53.085579 42 42 42
 -2.745252 13.029890 53.085579 40 40 40
 -2.813195 13.029890 53.085579 40 40 40
 -2.879154 13.020923 53.049042 39 39 39
 -2.947049 13.020923 53.049042 38 38 38
 -3.014945 13.020923 53.049042 40 40 40
 -3.080720 13.011968 53.012558 40 40 40
 -3.148569 13.011968 53.012558 40 40 40
 -3.216418 13.011968 53.012558 40 40 40
 -3.284266 13.011968 53.012558 38 38 38
 -3.349811 13.003024 52.976124 38 38 38
 -3.417614 13.003024 52.976124 38 38 38
 -3.485416 13.003024 52.976124 38 38 38
 -3.550777 12.994094 52.939739 40 40 40
 -3.618533 12.994094 52.939739 41 41 41
 -3.686289 12.994094 52.939739 42 42 42
 -3.754044 12.994094 52.939739 42 42 42
 -3.819177 12.985175 52.903404 42 42 42
 -3.886886 12.985175 52.903404 43 43 43
 -3.954595 12.985175 52.903404 42 42 42
 -4.019545 12.976270 52.867119 42 42 42
 -4.087208 12.976270 52.867119 42 42 42
 -4.154871 12.976270 52.867119 42 42 42
 -4.222533 12.976270 52.867119 42 42 42
 -4.287255 12.967376 52.830883 41 41 41
 -4.354872 12.967376 52.830883 41 41 41
 -4.422488 12.967376 52.830883 42 42 42
 -4.490104 12.967376 52.830883 42 42 42
 4.435971 12.841359 52.046089 129 129 129
 4.366411 12.832694 52.010971 129 129 129
 4.299844 12.832694 52.010971 128 128 128
 4.233277 12.832694 52.010971 127 127 127
 4.166711 12.832694 52.010971 128 128 128
 4.097379 12.824041 51.975899 129 129 129
 4.030857 12.824041 51.975899 130 130 130
 3.964335 12.824041 51.975899 130 130 130
 3.897813 12.824041 51.975899 131 131 131
 3.831291 12.824041 51.975899 130 130 130
 3.762232 12.815399 51.940876 129 129 129
 3.695755 12.815399 51.940876 128 128 128
 3.629278 12.815399 51.940876 126 126 126
 3.562800 12.815399 51.940876 125 125 125
 3.496323 12.815399 51.940876 125 125 125
 3.427536 12.806769 51.905899 125 125 125
 3.361104 12.806769 51.905899 127 127 127
 3.294672 12.806769 51.905899 129 129 129
 3.226067 12.798151 51.870968 130 130 130
 3.159679 12.798151 51.870968 128 128 128
 3.093291 12.798151 51.870968 123 123 123
 3.026903 12.798151 51.870968 117 117 117
 2.956537 12.780950 51.801250 117 117 117
 2.882489 12.746684 51.662373 106 106 106
 2.814482 12.738147 51.627769 104 104 104
 2.746566 12.729620 51.593212 97 97 97
 2.676950 12.712602 51.524239 87 87 87
 2.609262 12.704110 51.489819 76 76 76
 2.545063 12.712602 51.524239 67 67 67
 2.482437 12.729620 51.593212 56 56 56
 2.486301 13.097833 53.085579 41 41 41
 2.418359 13.097833 53.085579 35 35 35
 2.360169 13.152181 53.305851 36 36 36
 2.301495 13.206981 53.527958 36 36 36
 2.232987 13.206981 53.527958 36 36 36
 2.165982 13.216159 53.565155 36 36 36
 2.097426 13.216159 53.565155 36 36 36
 2.030281 13.225349 53.602406 36 36 36
 1.961677 13.225349 53.602406 36 36 36
 1.893074 13.225349 53.602406 36 36 36
 1.825740 13.234553 53.639706 36 36 36
 1.757088 13.234553 53.639706 36 36 36
 1.687263 13.225349 53.602406 37 37 37
 1.617534 13.216159 53.565155 38 38 38
 1.548978 13.216159 53.565155 40 40 40
 1.481451 13.225349 53.602406 40 40 40
 1.408929 13.188663 53.453716 40 40 40
 1.339586 13.179523 53.416672 40 40 40
 1.274754 13.216159 53.565155 40 40 40
 1.210403 13.262240 53.751923 34 34 34
 1.137642 13.216159 53.565155 33 33 33
 1.080347 13.355374 54.129395 24 24 24
 1.010359 13.346002 54.091408 21 21 21
 0.940470 13.336643 54.053478 20 20 20
 0.870068 13.317965 53.977772 19 19 19
 0.800424 13.308644 53.939999 20 20 20
 0.728838 13.262240 53.751923 22 22 22
 0.660043 13.262240 53.751923 26 26 26
 0.590424 13.243770 53.677059 31 31 31
 0.521725 13.243770 53.677059 36 36 36
 0.453026 13.243770 53.677059 34 34 34
 0.384059 13.234553 53.639706 29 29 29
 0.314750 13.206981 53.527958 30 30 30
 0.246071 13.197816 53.490810 30 30 30
 0.177610 13.197816 53.490810 31 31 31
 0.109074 13.188663 53.453716 31 31 31
 0.040632 13.179523 53.416672 33 33 33
 -0.027715 13.170397 53.379681 34 34 34
 -0.096034 13.170397 53.379681 35 35 35
 -0.164352 13.170397 53.379681 36 36 36
 -0.232671 13.170397 53.379681 36 36 36
 -0.300990 13.170397 53.379681 37 37 37
 -0.369308 13.170397 53.379681 38 38 38
 -0.437627 13.170397 53.379681 37 37 37
 -0.505595 13.161283 53.342739 37 37 37
 -0.573867 13.161283 53.342739 36 36 36
 -0.642138 13.161283 53.342739 36 36 36
 -0.710410 13.161283 53.342739 36 36 36
 -0.778142 13.152181 53.305851 36 36 36
 -0.846367 13.152181 53.305851 37 37 37
 -0.914591 13.152181 53.305851 37 37 37
 -0.982815 13.152181 53.305851 39 39 39
 -1.051039 13.152181 53.305851 39 39 39
 -1.119263 13.152181 53.305851 38 38 38
 -1.186667 13.143091 53.269012 38 38 38
 -1.254844 13.143091 53.269012 38 38 38
 -1.323021 13.143091 53.269012 38 38 38
 -1.391198 13.143091 53.269012 38 38 38
 -1.459375 13.143091 53.269012 40 40 40
 -1.526497 13.134014 53.232224 40 40 40
 -1.594627 13.134014 53.232224 41 41 41
 -1.662757 13.134014 53.232224 41 41 41
 -1.730887 13.134014 53.232224 41 41 41
 -1.799017 13.134014 53.232224 41 41 41
 -1.865858 13.124950 53.195484 41 41 41
 -1.933941 13.124950 53.195484 41 41 41
 -2.002024 13.124950 53.195484 40 40 40
 -2.070107 13.124950 53.195484 40 40 40
 -2.138190 13.124950 53.195484 38 38 38
 -2.204751 13.115898 53.158798 38 38 38
 -2.272787 13.115898 53.158798 38 38 38
 -2.339210 13.106859 53.122162 38 38 38
